131.2528476447,-11.7899935298,11.6078462601
131.2528466644,-11.7899927811,11.6037845612
131.2528453485,-11.7899917742,11.5829772949
131.2528447765,-11.7899913397,11.5991687775
131.2528444221,-11.7899910726,11.6264019012
131.2528434294,-11.7899903144,11.6216936111
131.2528417132,-11.7899889994,11.5803203583
131.2528407147,-11.7899882366,11.5750694275
131.2528398950,-11.7899876114,11.5788822174
131.2528380335,-11.7899861846,11.5293483734
131.2528378725,-11.7899860663,11.5668687820
131.2528369172,-11.7899853368,11.5636663437
131.2528355170,-11.7899842648,11.5373411179
131.2528344703,-11.7899834649,11.5292034149
131.2528344840,-11.7899834811,11.5764770508
131.2528339806,-11.7899830993,11.5969715118
131.2528334852,-11.7899827238,11.6180562973
131.2528330197,-11.7899823713,11.6408929825
131.2528325460,-11.7899820125,11.6634893417
131.2528310233,-11.7899808461,11.6301918030
131.2528308932,-11.7899807517,11.6713638306
131.2528292721,-11.7899795096,11.6324787140
131.2528285025,-11.7899789229,11.6393690109
131.2528279078,-11.7899784710,11.6558294296
131.2528265963,-11.7899774670,11.6332483292
131.2528265724,-11.7899774546,11.6811389923
131.2528250270,-11.7899762706,11.6455545425
131.2528235645,-11.7899751503,11.6142396927
131.2528223181,-11.7899741964,11.5946455002
131.2528211008,-11.7899732650,11.5764961243
131.2528202899,-11.7899726465,11.5809917450
131.2528198897,-11.7899723442,11.6086807251
131.2528193827,-11.7899719598,11.6305742264
131.2528188018,-11.7899715185,11.6484432220
131.2528183199,-11.7899711534,11.6721286774
131.2528178820,-11.7899708222,11.6985635757
131.2528172710,-11.7899703577,11.7152357101
131.2528154871,-11.7899689896,11.6640405655
131.2528145958,-11.7899683092,11.6643610001
131.2528143790,-11.7899681483,11.7041568756
131.2528128072,-11.7899669436,11.6646261215
131.2528125256,-11.7899667329,11.7009668350
131.2528108100,-11.7899654172,11.6524753571
131.2528087893,-11.7899638664,11.5853052139
131.2528084836,-11.7899636371,11.6203165054
131.2528078138,-11.7899631273,11.6337175369
131.2528076841,-11.7899630336,11.6799392700
131.2528062662,-11.7899619472,11.6482267380
131.2528056630,-11.7899614887,11.6660108566
131.2528051137,-11.7899610717,11.6872653961
131.2528043760,-11.7899605095,11.6970920563
131.2528032292,-11.7899596320,11.6816205978
131.2528032399,-11.7899596467,11.7381811142
131.2528014730,-11.7899582912,11.6838731766
131.2528001940,-11.7899573116,11.6597318649
131.2527999094,-11.7899570988,11.6983251572
131.2527989223,-11.7899563442,11.6925725937
131.2527987186,-11.7899561938,11.7368898392
131.2527964354,-11.7899544398,11.6479063034
131.2527959556,-11.7899540764,11.6745777130
131.2527949803,-11.7899533310,11.6693201065
131.2527943338,-11.7899528391,11.6854791641
131.2527930277,-11.7899518384,11.6584711075
131.2527926220,-11.7899515322,11.6906270981
131.2527916213,-11.7899507671,11.6836156845
131.2527907078,-11.7899500692,11.6823406219
131.2527900447,-11.7899495645,11.6978397369
131.2527885981,-11.7899484553,11.6606607437
131.2527879099,-11.7899479312,11.6744985580
131.2527870166,-11.7899472488,11.6744918823
131.2527863305,-11.7899467263,11.6886768341
131.2527855449,-11.7899461270,11.6961526871
131.2527847623,-11.7899455301,11.7039146423
131.2527840548,-11.7899449911,11.7169818878
131.2527828687,-11.7899440827,11.6966409683
131.2527807989,-11.7899424922,11.6137609482
131.2527799982,-11.7899418812,11.6199121475
131.2527793464,-11.7899413851,11.6367368698
131.2527785946,-11.7899408118,11.6465711594
131.2527777426,-11.7899401612,11.6492815018
131.2527771076,-11.7899396781,11.6677608490
131.2527763345,-11.7899390884,11.6763687134
131.2527756869,-11.7899385955,11.6942768097
131.2527751198,-11.7899381648,11.7183265686
131.2527734935,-11.7899369162,11.6639890671
131.2527721382,-11.7899358768,11.6292457581
131.2527714035,-11.7899353166,11.6407117844
131.2527701223,-11.7899343344,11.6109895706
131.2527696970,-11.7899340132,11.6460075378
131.2527689738,-11.7899334619,11.6586418152
131.2527687594,-11.7899333037,11.7106037140
131.2527675381,-11.7899323675,11.6851758957
131.2527675837,-11.7899324102,11.7581949234
131.2527659842,-11.7899311819,11.7030649185
131.2527646371,-11.7899301485,11.6671485901
131.2527638634,-11.7899295581,11.6763238907
131.2527633342,-11.7899291567,11.7051591873
131.2527624664,-11.7899284936,11.7070989609
131.2527614489,-11.7899277148,11.6969356537
131.2527609522,-11.7899273385,11.7290811539
131.2527590139,-11.7899258478,11.6433639526
131.2527584964,-11.7899254554,11.6738424301
131.2527575811,-11.7899247555,11.6716518402
131.2527568443,-11.7899241936,11.6843490601
131.2527552684,-11.7899229827,11.6265220642
131.2527546303,-11.7899224970,11.6474361420
131.2527535228,-11.7899216484,11.6285495758
131.2527527514,-11.7899210596,11.6382951736
131.2527517014,-11.7899202553,11.6240348816
131.2527509189,-11.7899196579,11.6328916550
131.2527502953,-11.7899191835,11.6558103561
131.2527495398,-11.7899186069,11.6673746109
131.2527488028,-11.7899180447,11.6807413101
131.2527481879,-11.7899175769,11.7052288055
131.2527473156,-11.7899169101,11.7068281174
131.2527464811,-11.7899162724,11.7118692398
131.2527455776,-11.7899155812,11.7106533051
131.2527445575,-11.7899147999,11.6986598969
131.2527436044,-11.7899140703,11.6926975250
131.2527425063,-11.7899132284,11.6730566025
131.2527415483,-11.7899124949,11.6663274765
131.2527410197,-11.7899120939,11.7003049850
131.2527401086,-11.7899113968,11.6981611252
131.2527396325,-11.7899110365,11.7379436493
131.2527392353,-11.7899107373,11.7859964371
131.2527376499,-11.7899095178,11.7183542252
